# 3D point list with one line of data per point:
#   POINT3D_ID, X, Y, Z, R, G, B, ERROR, TRACK[] as (IMAGE_ID, POINT2D_IDX)
# Number of points: 404, mean track length: 4.4463115620376241
8212 13.196599177859724 -0.58686992853859299 27.197946716483841 156 134 110 1.3809659735684843 2 951 8 1467 1 1836
9092 17.410265549747169 7.5182536950761927 27.112065692922119 218 177 132 0.44032876446809288 4 6412 6 6967 8 14632
8213 5.1785152064254873 -0.92174582886750722 28.574441117882809 67 37 37 1.3963618594578207 3 1458 9 1414 8 1468 1 8221
8214 -5.9242611139405694 -1.3932758242946641 28.661063362471225 74 58 42 1.2166933771623181 9 1274 8 1476 1 1587 3 1600
8215 0.39327497130019873 -1.0080076047131143 27.55161609824798 109 75 107 0.66595027295716502 3 1553 9 1344 8 1511
8216 -16.097164770600937 -1.2684571324746237 41.777711520943079 38 34 31 0.92090717070380856 2 1655 8 1595 1 1642
9096 1.1812352307426564 4.2573319025191214 17.372684070470342 82 50 29 0.94828740291687053 4 6349 6 9440 8 14653 1 14616
8217 1.9348040747631707 -0.46333545023501954 26.803941504057558 65 48 40 1.9700560608193687 6 868 8 1678 1 1899
8218 -0.9772013595669059 -0.34536524849406602 26.435868573016837 77 34 16 1.3031584213125407 9 1605 8 1761 1 1958
8219 -1.9001912818547655 -0.31541158261457508 26.288442691612399 16 5 11 1.394649571768483 6 960 9 1611 8 1793 1 1972
9615 -10.555043640456093 -9.7021717348964067 71.584836312929113 156 139 101 1.5995394641441001 7 15415 8 16060 1 16189
8220 8.7545329484372552 0.31856145866992797 25.40424649633961 99 59 62 0.8068172269840076 3 1725 9 1835 8 1853
9100 -4.9577260557667273 7.5104021190930235 25.78743792987229 94 77 57 1.424217357403893 4 8652 6 9587 9 16852 8 14711 1 12901
8221 3.756546893923554 0.14942071321495651 25.644091262354433 209 121 99 1.5854838182003967 3 1873 9 1776 8 1858 1 8455
9609 -3.2947515064445172 3.9973018205318795 12.525194344961166 86 78 57 0.21956138063559166 4 10176 1 15904
8222 -5.5835277035797013 -0.18225169685383591 25.990123850858755 95 74 57 1.9124055999681544 4 986 6 1038 9 9922 8 1891
8223 8.9092033828528887 0.44139953149587635 25.072410457850779 232 192 171 1.397872060606135 3 1782 9 1868 8 1903
8224 -13.435002282259356 0.13967156825387358 39.953111883731296 59 35 37 1.7737906696352475 2 1923 8 1904 1 2006
9040 -3.7972771284226243 -10.703984330108815 75.335987436402988 160 153 125 2.2684882760813614 4 5056 9 13502 8 13769
8225 2.4722225572278571 0.20250785541884322 25.355407745959376 255 209 149 1.8802790951814394 9 1790 8 1912 1 2174
8226 11.504825873248233 0.63222209958661468 24.922372394198259 255 230 205 1.965798427793457 9 1934 8 1926 1 8582
8227 1.869737919993498 0.26188142788240054 25.175628652586699 66 49 50 1.4522659390384771 9 1813 8 1940 1 2209
9559 -0.79208546493916598 1.6350189027493747 21.271832821948973 161 107 63 1.7939976341832722 3 14434 6 8996 8 14193 1 14115 4 5818 9 10320
8228 0.77551938880800475 0.34617394925142736 24.834319554988486 114 81 72 1.2284643242749247 9 1841 8 1986 1 2249
9044 -5.0631415656278849 -2.6173713771229159 29.760308772267514 138 113 84 1.4676777032695414 3 15237 4 7668 6 8622 9 15901 8 13886 1 13742
8229 -2.0071441031952904 0.23760984275098038 24.575287426845435 36 20 20 1.1320357319405516 3 9223 9 1799 8 1997
9553 12.34651253281751 1.1825048332163015 23.936138456463368 255 196 150 0.88204356273559603 3 12498 6 8821 8 14044 1 14028
8230 10.324510376233842 0.86982943038387439 24.154196301903667 255 224 199 1.2354710177329276 3 9068 9 2016 8 2056
8231 -5.5259042197549002 0.48738571319303797 26.162895184113154 73 52 35 1.6668390154812511 4 1155 8 2127 9 10055
8232 8.8469755222702755 1.0024481481999126 23.551276817624501 244 203 175 0.81985879755409619 9 2070 8 2145 1 8672
8233 1.1017358664882029 0.95996617157285813 23.185546708555197 213 185 184 1.2137683744814192 9 2047 8 2300 1 2524
8234 -4.6489494569990786 0.98128717321959591 24.877447324032158 68 46 32 1.0748777943542607 6 1344 8 2356 9 2045
8235 -12.255082103140364 1.8915758057810879 37.236511049553556 89 85 74 1.3197251607227574 4 1389 9 10287 8 2383 1 8626
9567 6.4057196284302158 3.428656086248647 20.711670309186982 177 123 79 0.66943332372301578 4 8320 8 14422 9 16584 1 14453
8236 1.5548784329492276 1.1751286304113586 22.613056990478078 116 96 86 2.2849409929426181 2 1756 8 2398 1 2643
9052 0.24073002804013757 0.17627573693111481 25.256049239541323 111 73 54 0.88390369980724592 4 5427 6 8794 9 16089 8 14014
8237 19.623313778030141 3.7563942734358902 37.546785249190627 253 212 170 0.85763644081641444 9 2497 8 2484 1 2872
9561 10.601326472855853 2.465687897128614 23.268431008994494 131 73 36 1.4582015590514519 2 12974 8 14201 1 14203
8238 -2.6894152679569667 1.1939918952473567 22.494414281014823 55 36 21 0.43965207871751427 7 2473 1 2650 9 2152
8239 15.957714340914514 2.7427456808591009 27.146495282583562 68 30 13 1.2251237138270576 3 2318 9 2455 8 2582
8240 -13.005474759403132 2.7926324918628747 37.008339367477824 95 92 75 0.76779188215568805 9 2328 8 2640 1 8761
9120 -12.542072071591596 -1.4266610273734095 26.197542558294895 87 82 63 0.33777803026878533 4 7733 8 15051
8241 16.735930476141167 4.3592539676670166 35.610835910168653 246 204 164 1.4063083221410178 9 10514 8 2733 1 8929
8242 18.264488350678175 4.5036170508319486 35.320878494588939 210 168 130 0.62635534912403934 9 2681 8 2758 1 3038
8243 8.8483209621439141 2.3107387899693932 21.984001264754902 186 132 96 1.1015101025845651 2 1949 3 2681 8 2764 1 2964
9639 -2.2443941767337239 -0.82214998273581719 25.630849872073775 251 230 200 0.28592451261446228 7 1468 1 1740
8244 17.65946304696563 4.6957037717485175 34.905541433798831 197 158 119 1.1372186339773123 9 2741 8 2812 1 8979
9124 0.61845942286316347 1.0570308809860856 22.834026752294601 57 42 35 1.5041159791808525 4 7930 6 10330 9 16159 8 15177 1 15191
8245 17.541044483433453 4.6948346724603827 34.82911630988724 255 217 178 0.96159505176383642 9 2740 8 2818 1 3091
9633 -2.8502022863630763 -10.026303503240179 71.312387590774279 87 84 62 2.0664545280289142 9 15835 6 10121 3 15129 1 13613 4 7591
8246 17.88745633198225 4.9079626759650425 34.334689299574364 187 147 110 1.1554291297896646 3 2717 9 2824 8 2885 1 9014
8247 17.854990591293426 4.8981989168580435 34.277526489461621 187 147 110 0.91268863304851389 3 2718 9 2825 8 2886
8248 13.970151286398933 4.8048991720828491 34.089340577075134 178 138 102 0.59931468547788924 3 2824 9 2803 8 2920 1 8995
9128 -6.553049466586919 2.4306592607067761 17.064556324239934 75 68 49 0.50646828610639238 4 9418 8 15289
8249 17.057342084433127 5.0518662135572914 33.783269238539681 255 217 178 1.2941655383941941 9 2929 8 2961 1 3237
8250 16.766844597781663 5.1261800317731891 33.699529355337248 235 196 157 1.5263656756255524 9 2961 8 3006 1 3262 3 2849
8251 14.733457348294706 5.0503232149302244 33.746107643796911 236 197 158 0.45469951069371461 9 2921 8 3008 1 3228
9647 1.7179642146916323 3.0294487549887164 17.693220605385712 108 66 41 1.8692212954857057 3 15862 6 11466 8 15750 1 15849
8252 17.318189685489344 5.1797639910438757 33.611577668494824 188 146 106 0.6334637506402625 3 9550 9 3007 8 3017
9132 1.5936222466292669 3.5360368847483117 17.323625905151008 123 80 46 1.5339368207021409 4 9502 8 15350 1 15367
8253 16.647274395205503 5.1690816696267907 33.525250445010762 191 152 113 1.3770688973677216 9 2997 8 3026 1 3272
8254 15.717659487228479 5.1716939523990577 33.575976860100631 232 193 152 1.3519276675675 9 2989 8 3042 1 3266
8255 13.511606834459371 5.1241942592219969 33.22076126299406 145 109 77 0.56590932580780284 3 2971 9 2987 8 3082 1 9068 2 2604
9200 -15.50933065780757 -0.81765182815692072 40.035136354302367 40 21 16 3.5770201731919835 9 1616 8 8642
8257 7.810302162039755 2.9458440937781405 21.504053386723005 182 132 95 0.56539299906995077 3 3069 4 1567 8 3107
8258 13.696315718507066 5.3032784664574297 32.840636146057356 153 116 81 0.76644605107442565 9 3102 8 3164 1 9112
8259 11.809979258432346 5.2743651818209978 32.782971322670626 132 97 67 0.63254865580226427 9 3091 8 3186 1 9102
8260 16.769465678331866 5.4912414647674961 32.523103065548604 157 115 75 1.4363626241010088 9 3222 8 3201 1 3424
9204 -15.579605940748255 -1.382139573069382 41.580931024206443 19 15 14 2.5550263427251223 4 9241 9 17410 8 15049 1 15077
8261 13.322975257157509 5.4738323236375068 32.434987546977979 148 113 81 0.41040835744416948 9 3213 8 3256 1 9157
8262 14.978463365233289 5.5830443877272069 32.362833917179515 159 121 84 0.59860067781297588 9 10776 8 3269 1 12533
8263 14.5897816011204 5.5751271570475813 32.342101009539896 205 167 130 1.1950356230799766 9 3278 8 3285 1 3462
8264 14.262411618466837 5.5626228287849395 32.263712442558599 199 160 127 0.67722081024845515 3 3165 9 3277 8 3288 1 3453
9208 -8.6575714653830893 3.2514224767475057 33.966647489436582 48 29 15 2.779482904746208 2 15271 8 16264
8265 11.01047701404174 5.4340049300927946 32.191700708051137 122 88 60 0.47170910216005435 9 3205 8 3293 1 9147
8267 10.528540413439423 5.4547306788829326 31.937690757351977 180 146 119 0.85238229053656267 3 3309 9 3234 8 3334
8268 16.29387192585688 5.7379634954208614 31.743422204785563 209 170 131 1.1142217444296685 3 3173 9 3425 8 3356
9212 -17.896624160736575 -15.148244564558942 71.160785426316096 42 41 37 1.0205253726707038 2 384 1 352 5 194
8269 -10.010514637745475 4.7374613933734642 32.396210169340044 73 56 38 0.69581154399976641 9 2835 8 3407 6 2045 1 3108
8270 15.975125463124657 5.85937004893285 31.602497532898855 152 112 76 1.5203886818818884 9 3481 8 3427 1 9260
8993 7.6314898460768186 7.611825803107541 26.059946290876923 157 126 95 0.49202112654327407 2 9081 8 13163 1 12978
8272 11.489294550865809 5.6814590628705819 31.538421842225567 135 101 74 1.1080113716176874 9 3402 8 3437 1 3522
9510 12.780458249591055 7.5087710278251247 26.883758570439795 154 115 74 1.1555741338542991 4 2558 1 12955 9 11453
9152 17.315382635624278 4.8443299729292946 34.334680199413064 244 205 166 0.94980091843173442 4 9392 6 10390 9 17596 8 15735
8273 11.751384685382099 5.7069647110308122 31.560601020388301 170 136 108 0.9761492382883824 9 3404 8 3438 1 3529
8274 10.532547330695055 5.6609072735257069 31.566749598176063 157 127 99 0.32405270754513532 9 3383 8 3443 1 9207
8275 -8.1528010907886603 4.9202657072602891 31.969892006347823 92 77 56 1.3329842035993431 9 2953 8 3491 6 2059 1 3179
9671 16.712318835983787 0.49597441494256822 26.812217193236023 211 161 112 1.3821287921445098 8 1782 5 1372 3 1536
8997 -3.6345398860821607 7.4521344408175354 25.937472983404398 78 61 43 1.3248656401308838 4 6561 6 7374 9 14811 8 13211 1 12888
8276 9.9462517610604042 5.7251785210355504 31.305794963966047 164 132 107 0.6832046139207214 9 3431 8 3504 1 3543
9156 1.3501370156138028 3.7214088179392113 17.236964528821282 58 27 9 1.4117449819235237 4 10124 6 11144 9 18266 8 15771 1 15863
8277 9.6180152807261532 5.7353029613606274 31.319141050785944 120 90 64 0.688882651207121 9 3438 8 3512 1 3539
9665 7.4639271800067295 -2.8237928949406621 32.952214062742335 42 32 20 0.67228185633608994 1 1209 8 1019 5 615 3 1063
8278 15.120586286718201 5.9745966231735306 31.270386217950961 130 94 58 1.3680259524431273 9 3561 8 3513 1 9292
9508 12.482515890893941 7.4032356151445011 27.032201614951251 151 113 74 0.83691535248659088 6 2467 9 11396 1 12916
8279 -4.7685265930168192 5.1309581866966179 31.265536823997223 30 14 2 0.86544237580253713 9 3110 8 3555
9001 -1.6623407925937248 7.6271543244753071 25.45104324801062 68 51 33 1.2277305737856641 4 6596 6 7386 9 14853 8 13244 1 12963
8280 12.376542077812548 5.9105405822918557 31.091950688059285 168 134 106 0.74480640375537865 9 3534 8 3556 1 3639
9518 6.7976159571636927 8.1403638526168045 24.562101103928633 140 106 71 0.6784596709823667 9 11783 1 13117 4 3058 6 3220
9160 31.457045032827214 -11.666987935995646 47.380974371009906 53 48 44 1.548535513982837 2 14840 8 15837
8281 13.428238897403187 5.9833209369326532 31.073586355785398 182 147 117 0.73417479327835689 3 3471 9 3579 8 3566 1 3685
8282 16.051121104657959 6.085878612656229 30.834983889308727 171 130 98 1.2574321370634842 9 3690 8 3581 1 9350
8283 -5.0516267485862887 5.1718712105543716 31.184977601825985 50 35 19 1.3019383529145365 9 3126 8 3588 1 3285
9679 -24.677104776160984 -11.265723643158962 56.246144124296528 211 214 210 0.92447173148426243 2 14521 8 14888 5 11391
9005 -2.7546649760158264 7.8299440745704505 25.054795759572677 64 46 26 1.1659585761091467 4 6653 6 9613 9 14886 8 13295 9 16875 1 13000
8284 18.365980576882276 6.1943948752344351 30.7082789095703 231 189 149 0.74637526012398958 2 2893 3 3345 8 3593
9164 5.0025324152852315 2.5206973952460849 19.483353383044445 131 78 44 1.0207597471320935 6 11451 8 15981 4 10431 9 18564 1 16099
8285 11.521517143867756 5.9631162795270933 30.730467535274819 181 150 121 1.2304097988886367 9 3611 8 3613 1 9290
9673 -16.228258975673516 -24.396483354514768 86.618351307378717 181 184 175 1.8623391942148544 3 15049 5 7569
8286 -7.0727563310065076 5.1987141283140712 31.289124420364267 71 56 37 1.2925975545037829 9 3145 8 3625 1 3278
9516 -4.0818171020789311 7.8440036257624781 24.670557537669147 108 88 64 2.2853603112048768 4 3112 6 7543 8 14750 9 14897 1 13023
8287 15.522252767821207 6.1665754620390496 30.655984119745689 200 162 123 0.90526317769097031 3 3477 9 3770 8 3633 1 3847
8288 14.374007689145071 6.1642520258169871 30.711349866135652 144 109 77 1.2082519420442581 9 3751 8 3659 1 9370
9104 10.11326077785643 8.4099661569472968 23.752112893112884 183 145 106 1.3374889993119932 3 13515 9 16954 8 14764 4 3220 1 14814
8289 9.0938314045185269 5.947517145802637 30.57043613704025 102 74 50 0.27465505337991497 4 1960 8 3681 1 9283
8290 -3.6446139900561429 5.4763602359904349 30.744639076785756 90 74 58 1.6202953081201661 2 3563 8 3741 1 3401
8291 12.646637633179274 6.2190726151363771 30.399872889914732 171 137 109 0.65577688848146554 9 3798 8 3756 1 3860
9623 0.23417060558022976 2.7887384355164992 18.358625039033907 55 36 21 1.2012112950177762 7 8583 4 1657 2 2431 1 3345 9 2729 3 4002
8292 -5.2892512119708126 5.6014563792865646 30.521077998104449 88 72 56 0.43505547676357198 9 3417 8 3857 1 3464
9108 2.390766424777282 8.7072872021844674 23.01153604362494 133 108 77 1.7263268062680819 4 8763 6 9677 9 16990 8 14826 1 14834
8293 -5.3044609977800627 5.6124117139787932 30.577440186203919 88 72 56 0.62938016465510693 6 2257 8 3858 9 3418 1 3465
9617 -12.097583127265549 -0.82596498645329142 26.89842824877017 80 73 55 0.25774071186622055 4 9994 1 16231
8294 9.0397433016005024 6.1845590974195508 30.060396279417255 91 63 41 0.73022780566254275 9 3804 8 3861 1 3827
8295 10.648708304744909 6.2611199766647418 29.8108283721851 141 111 85 1.2499351639475387 9 3887 8 3896 1 3928
8296 11.709856125290433 6.389118778185451 29.73633218548709 160 129 100 0.63257781306415328 3 3810 9 3962 8 3924 1 4028
9112 -24.55319993427511 -12.960437133931189 55.604185533733229 201 188 169 1.7857991154394086 2 12543 8 14874 5 11366 9 13331
8297 8.4233128697179129 6.2500624127814008 29.740440502862132 144 116 92 0.41485976129214314 9 3881 8 3929 1 3895
8298 10.147575582178233 6.3383359580667937 29.633837307231264 112 82 54 0.72496396547385444 9 3943 8 3945 1 3986
8299 8.5203501899136782 6.2793837152901881 29.691178745740014 140 113 84 0.72910932005557871 9 3903 8 3953 1 3924
9631 7.0756022187630165 -3.5433757722115189 33.4473650003033 50 35 25 1.234836184018087 9 18462 3 16171 8 16067 1 16192 4 9916 6 10950 9 18071 2 13881
8300 -6.289782411023185 2.5780873092523069 16.856078753384988 78 71 55 0.54728091476983132 9 10551 8 3967
9116 27.673992626310845 -4.2955824929254796 48.172421918116648 80 43 25 0.54247227325564895 2 12661 8 14949
8301 13.086232338484749 6.5222726964138431 29.689901242773704 161 130 101 0.50677448888264676 9 4032 8 3971 1 9520
9625 -1.6911451421804593 7.1169403012027317 26.817812723232393 34 25 14 1.870840933415955 9 4794 8 5362 1 4696 3 6045 6 2986
8302 0.8794835002523117 3.0757229036069105 17.32176765815359 85 57 36 0.62321050831301605 3 4418 8 3973 1 3622
8303 1.1294016409166436 3.1210043296941392 17.477073748592257 74 40 21 1.6048060679048579 3 4401 9 3067 8 3974
8304 2.8364261979514072 3.3896759639512006 18.116764966453378 103 58 29 1.6325459066825156 6 1897 9 3249 8 4003 1 3764
9184 1.6150838509894463 0.94840635311904897 23.264184616535136 72 54 44 1.5538264999258349 4 10625 6 11643 1 16390 9 18742
8305 -6.4875360368313766 5.7463989403994198 29.722681542573014 59 42 24 1.3467008063796022 9 3547 8 4049 1 9232
8306 7.5604071716586647 6.3825487565019712 29.349588493916144 64 37 18 0.31895083292808907 9 3987 8 4063 1 4016
8307 7.5604071716586647 6.3825487565019712 29.349588493916144 64 37 18 0.31895083292808907 9 3988 8 4064 1 4017
8308 8.9745282703678839 6.4554382406009161 29.142987657433178 161 134 107 0.61907065167316233 3 4081 9 4046 8 4086 1 4105
9188 21.380394562008696 -5.093825803464636 52.522105943771663 26 12 9 1.9809805218052097 7 7071 9 13587 6 5804 2 7237 3 12100 8 11834 4 559 8 8212 1 11664
8309 20.297700054391498 6.9015040084032577 28.888201069969639 205 163 121 1.9410855183431959 2 3219 3 3667 8 4106
9697 -14.658445432754437 -20.367086448365562 75.019849256911812 202 205 196 1.6243485521496221 8 14851 5 14340 1 14882
8310 6.7579815828435921 6.4026171793556585 29.175383534531292 130 105 85 0.71646991037912999 9 4008 8 4111 1 4040
8311 2.000950654235548 3.3617161426519089 17.588084034995969 61 28 11 1.4377968639146179 3 4502 9 3286 8 4123
8312 -7.4036851205252896 5.8173448288858438 29.558369454431784 97 82 61 0.51613988786853082 9 3612 8 4131 6 2507
9192 -3.1970017102123114 -0.025286027497676115 25.282595197644422 4 0 0 1.9508084553234639 9 1706 7 7967 2 1463 3 9177 8 8760 4 7839 6 8793 9 13824 2 10857 3 14247
8313 6.3501944503108962 6.4607713088870726 29.12036042697698 80 53 32 0.79961291410583391 9 4038 8 4184 1 4063
8314 7.0859883997271274 6.4837620776177536 29.044095300658118 141 115 92 0.46393130936487265 9 4077 8 4185 1 4102
8315 7.0859883997271274 6.4837620776177536 29.044095300658118 141 115 92 0.46393130936487265 9 4078 8 4186 1 4103
8316 8.3118396090650482 6.5487339958919533 29.055616560364165 101 73 51 0.52991618246443606 9 4119 8 4187 1 4156
9196 -1.4411658403762873 7.5757424480025977 25.584860560866414 59 44 28 1.6225345080663185 6 9566 3 14944 8 13224 4 6580 6 7359 9 14840 2 9353 1 12953 5 2241
8317 9.4533781130042431 6.5723973660867774 28.927915497693736 85 54 33 0.53596065738894472 9 4149 8 4198 1 9567
8318 5.9750129074467306 6.4598766386131778 29.011451304447341 55 29 13 0.56857224008322838 9 4061 8 4206 1 4074
8319 7.4911497479795344 6.501208801013072 28.912396872274009 166 138 114 0.48193052227466132 9 4107 8 4209 1 4130
8977 10.341229855032342 6.8851898233144313 28.163701197152982 121 90 62 0.88310266171882112 4 6355 6 6946 9 14678 8 12985 1 12745
8320 8.4908952103231563 6.5471656926981323 28.79675843960775 89 61 39 0.49320163630363928 9 4148 8 4223 1 4191
8321 8.4284414364068088 6.5734434453479711 28.712933005638057 149 121 96 0.73172516765005591 9 4174 8 4247 1 4221
8322 1.9856859299152367 3.5360839226319096 17.643626139533257 79 45 19 1.0391126361872038 9 3443 8 4277 5 1437
8323 2.7034785863138815 3.7471734087489965 18.295803398335217 114 78 52 1.1749564283029583 9 3523 8 4285 1 4015
8981 15.74879958191895 7.329435207781021 27.516216394817864 207 164 122 0.53220274118088273 3 13147 4 2411 8 13020
8324 8.247660297365897 6.6661679717685258 28.604111180346742 84 56 32 0.58982285267890899 9 4230 8 4308 1 4280
8326 8.9324649776692464 6.7511352920858814 28.508129165433601 162 130 105 0.72670740500990227 9 4293 8 4362 1 4361
9492 1.4341591954889672 3.1414072785671556 17.611717540444754 97 56 36 1.7579843776614181 9 14427 1 12578 4 6119 6 6790
8327 9.0115616422463543 6.749433682603768 28.500147205203103 91 59 36 1.1760389018484074 4 2241 6 2249 9 4301 8 4363
8985 -1.365353188659326 6.8363115476805083 27.322103145716138 88 72 56 0.96825236752475041 2 9071 8 13072 1 12720
8328 9.2797847671343998 6.7631777427150652 28.374485601307949 107 78 48 0.70235375373525688 9 4321 8 4379 1 4402
9502 6.3914976940353529 6.8545400651418458 27.850722231130053 165 138 109 0.94288872805089419 2 3954 3 13206 1 12736
8329 -5.3807179230070128 6.2197358296303333 28.971375910539052 95 80 61 1.2157041262254391 4 2213 6 2618 9 10973 8 4396 1 9371
8330 -4.1992048135417193 6.2261349908460408 28.765456390859942 87 71 55 1.0828218701705767 9 3949 8 4397 1 3856 2 4178
8331 11.193777049537927 6.912331193803996 28.357777658223995 91 60 31 0.53654605809226685 9 4439 8 4421 1 9714
8989 -5.9184137978778875 6.9560047385458841 27.202074002530384 74 57 39 1.2413519986404475 4 6445 6 9529 8 13120 1 12726
8332 -3.8460755341292412 6.2673705618957412 28.702543104220311 56 40 25 1.6985485190351626 3 5108 9 3978 8 4423 1 3894
8333 7.0930312604744223 6.7389054010548266 28.23713176348009 141 115 90 0.62140575204928272 3 4523 9 4318 8 4440
8334 7.1890137126826428 6.7523363522388262 28.24508311077026 85 57 36 0.55921063081653966 9 4329 8 4449 1 4375
9500 -6.295641809926944 6.7286085477807971 27.84132706830151 67 49 29 1.1798070560422844 4 6400 1 12690 6 9504 9 14665
8335 -6.533411350597496 6.2199850582071825 28.681985317926912 100 83 63 0.46330570656621745 6 2696 8 4474 9 10994
9057 13.555095143976455 1.7077609855051941 25.194237865177609 152 86 51 0.91071181892060593 4 7969 6 8862 9 16252 8 14088
8336 -2.4166462720485984 6.3568904658162921 28.40149601847412 52 39 23 1.0535436236564792 3 5078 9 4056 8 4478 1 3998
9574 -1.9477287787379012 8.3991993179597966 23.798790129458038 92 72 48 1.2742736640659915 4 8741 6 10719 9 16949 1 14780
8337 9.8604636439722526 6.889614199612363 28.143164361748617 154 123 95 0.47783550664188823 9 4457 8 4481 1 4535
8338 -6.365977128964885 6.2343127670759966 28.638724900767336 103 87 64 0.74011615028569633 3 10610 9 3968 8 4490 6 2702 1 3864
8339 -3.0486604526103656 6.3501139942573106 28.364341548648916 64 48 32 1.2322634798980727 9 4055 8 4497 1 3992
9061 9.2099978629764667 2.4335289520538681 22.276257009828264 170 121 81 1.4945353810608568 3 14368 9 16410 8 14221 4 8113 1 14224
8340 11.922615671581744 7.0201428715895746 28.063878654738879 126 92 63 0.82819349794258523 9 11214 8 4526 1 9763
8341 11.922615671581744 7.0201428715895746 28.063878654738879 126 92 63 0.82819349794258523 9 11215 8 4527 1 9764
8342 14.941722199754796 7.1320621544722034 27.984532122717074 169 129 93 0.66638364048048038 9 4659 8 4528 1 4851
9572 2.1379335581334673 4.0988795333848422 18.027895050572528 154 111 69 0.79837602593311408 4 9561 6 9397 9 16742 1 14591
8343 4.2693705525840357 6.7409587937641131 28.146316189921066 116 95 76 0.96511780195301589 9 4328 8 4560 1 4328
9065 8.0669160993278197 2.4545279438521854 21.480224522420222 178 128 92 2.108752390082953 4 8141 6 9017 8 14246 1 14251
8344 9.9057025102540361 6.9810547049873835 27.997947272070967 91 59 36 0.36591061185977142 9 4541 8 4573 1 9749
9582 -5.3549774511409609 -2.3278146208984616 28.759950318356058 117 102 83 1.6128452005278036 3 15766 6 10188 8 15000 1 15039 4 7686
8345 5.1012485420255302 6.7873965716258464 28.00972215057001 125 103 82 0.2841828623016765 9 4394 8 4592 1 4405
8346 7.3001189439788545 6.8726310953284395 27.91003013255806 88 60 38 0.37175652844327295 9 4468 8 4600 1 4511
8347 14.790233173746696 7.1755650973155802 27.816076771431771 169 130 91 1.0499007972741972 3 4252 9 4735 8 4603 1 9905
9069 6.7591190534036896 2.5062109320326971 20.562194603090806 175 120 84 1.3601379196589918 3 14444 4 5962 9 14307 8 14284 6 6562 1 14280
8348 -6.6383053254401405 6.3770926030548525 28.612306679103497 61 46 25 1.3644406491090673 6 2764 9 4041 8 4606 4 2297
8349 10.010791956602857 7.0118118854327953 27.873922021075082 106 75 46 0.61131158136039476 9 4567 8 4617 1 4653
8350 5.6706875171463489 6.8359944031624007 27.842878382144054 77 55 32 0.28137795435057128 9 4443 8 4632 1 4469
9580 -5.3975237487820262 -3.5313073617710926 31.605928653914173 169 146 137 0.93891933728301968 2 13889 3 15744 8 15602 1 15003
8351 -5.5939783200899935 6.3793146581429019 28.226824477865623 88 73 54 1.2131346626625625 4 2308 6 2751 9 11052 8 4640
9009 -2.2918145234114067 7.9504336092892114 24.441349914051184 95 77 55 1.0098302181066108 6 7521 9 14925 8 13337
8352 4.9481889679419959 6.8499133299477526 27.859001407466248 124 102 81 0.26617280209538108 9 4453 8 4655 1 4463
9526 9.9745101374854652 8.6434104894777679 23.539613350876909 192 150 108 1.5029824231524369 4 3350 1 13381 6 3409
9168 -5.7393270251198851 2.865889747606075 15.323176205168284 41 35 23 1.6379632520990894 4 10457 9 18578 8 16008
8353 -7.1747966353273034 6.3846444030802969 28.394917953117943 66 49 31 0.97213619465472834 6 2802 8 4658 1 9438
8354 11.935006856220218 7.170359335269147 27.72006717175644 165 132 101 1.0052534971706888 3 4490 9 4717 8 4676 1 4861
8355 4.5304597956804642 6.9115583851032341 27.743686259678988 62 41 20 0.60459162697421387 9 4510 8 4727 1 4518
9687 3.8250245528885634 3.2430198190886568 18.819725597350331 49 23 9 0.76461318479345486 8 14471 5 11881 3 14669
9013 9.3687255768926327 8.5368267610005173 23.81290893930397 176 138 102 1.4048610149368983 4 6738 6 7384 9 15026 8 13377 1 13312
8356 7.9771106456626999 7.0389754225315944 27.620144646912514 95 65 39 0.42698796848564285 9 4627 8 4733 1 4682
9172 25.173909689003764 -9.2333316775251468 47.080834528386958 47 34 28 1.7833831095399049 6 11565 9 18663 8 16051 4 10300
8357 -4.4368497106445943 6.5276223823871886 27.992067220843467 50 35 16 1.1434513421397909 6 2776 9 4204 8 4738 1 4120
9681 7.6316673820740846 -6.233564161042108 33.986891703095651 212 182 156 0.7140448649396226 1 11483 3 11981 8 11695 5 11414
8358 -1.6315745197902534 6.7039687022303101 27.944656598719881 43 26 10 2.2492814285855069 7 5343 8 4758 1 4252 8 10144
9524 -1.4902991071485439 8.8158944901038208 22.771598803616452 79 58 37 1.3672188709021222 4 6941 6 7850 9 15141 1 13365
8359 6.2244371576755606 6.9975955624148103 27.605935562782104 164 134 108 0.39001427454295606 9 4592 8 4760 1 4621
9017 -0.92111544064620787 8.4467290208711905 23.523059956704806 71 54 34 1.34388734583758 4 6816 6 7650 9 15017 8 13486 1 13200
8360 -2.8086548803964804 6.5936568556698285 27.775434362541077 95 79 63 1.1399292543580979 3 5480 9 4273 8 4766 1 4212
9534 8.0796594409021623 -5.2901448537396512 34.612960007603675 99 83 80 0.87976338441653967 4 7559 9 15810 1 13614
9176 -3.8602105504279307 0.71659651533677504 23.680936988541688 90 64 49 1.8354791215684063 4 10622 6 11648 9 18737 8 16127
8361 10.655263989250747 7.2021981503462289 27.446943901054812 161 127 99 0.60574563248676749 9 4778 8 4787 1 4916
8362 13.497842667161258 7.3123839375322293 27.353420001150802 197 157 121 1.264294818263612 2 3846 3 4515 8 4798 1 9995
8363 -4.8287866670550228 6.5586339666458437 27.832884002296751 95 78 60 1.2827292104398824 9 4235 8 4800 1 4153
9695 6.6223852192794084 3.2844427360282267 20.813941067215893 77 37 15 1.1534664348101153 3 14567 8 14407 5 13734
9021 -1.1743487416869505 8.5055362917057238 23.422135329387416 70 53 30 1.4562026755339943 4 3529 9 12057 8 13518 1 10842
8364 -4.8287866670550228 6.5586339666458437 27.832884002296751 95 78 60 1.2827292104398824 9 4236 8 4801 1 4154
9180 10.531836937652232 7.6560259317410759 26.160379009912432 140 107 74 1.3505009780323693 4 10468 9 18593 8 16164 1 16300
8365 8.2141594570156453 7.1005204644979409 27.413685326072837 101 71 45 0.79248849283547285 3 10372 9 4699 8 4804 1 4771
9689 5.9553961874360821 3.5326555228227225 20.47201362831731 145 97 59 1.240240777581231 8 14448 5 12060 1 14475 3 14612
8366 2.2230975860894837 4.1871951408587202 17.99085653420255 73 33 8 1.2745802657810146 6 2321 9 11012 8 4828
9532 9.0518018217492529 -5.4694920036525785 35.149145038272941 228 185 142 1.4728402358803372 4 7555 9 15803 1 13604
8367 9.0746686783803145 7.1623878585123562 27.34557683816228 160 129 101 0.46950241099523621 2 4031 9 4761 8 4837 1 9867
8961 -5.3180665748752629 4.5873623701999238 32.557006259151414 83 70 54 1.0532429988885281 4 6080 9 14378 8 12744
8368 -1.989794167484632 6.7259771183089656 27.665130945622245 70 54 38 1.5893960337297353 3 5523 9 4390 8 4854
9478 -3.4146552184977303 -0.71777496154473697 25.333947581058101 136 112 86 1.5006550267530212 6 10256 9 16008 1 11930
8369 13.515191660311967 7.3465453459530794 27.219222996888625 198 159 120 0.6755553389518042 9 4981 8 4856 1 10031
8370 -6.9858816176049769 6.5517077224577074 27.868551627997196 96 79 61 0.82578315161542282 6 2915 8 4865 1 9521
8965 -4.6704870633706497 5.206633539133886 31.265819008733853 79 63 47 2.3002147819981347 2 11703 8 12821 1 12481
8372 6.2789901126995282 7.0874679789269859 27.343565440797388 153 127 100 0.3998925990285454 9 4689 8 4877 1 4732
8373 13.969706202916964 7.3707539746913957 27.025721128976212 205 166 123 1.2942127451296355 9 5062 8 4895 1 5252
8374 2.1756032058315879 4.2820040572643476 18.090482619616669 140 102 65 0.79589854092933388 9 4060 8 4897 6 6998 4 6322 1 12741
9476 -1.6868672608733974 -1.431200628066345 26.685416904300705 120 107 90 1.5011966004842523 3 14157 4 719 6 5931 8 13935 1 11841
8375 11.360102867259686 7.2968215448842226 27.128930274991067 169 133 101 0.58703345446155453 2 3993 3 4687 8 4903 1 9985
8969 -6.5796970890793451 2.4664725183619041 17.00876770775886 81 76 57 0.54619123276322179 4 6065 8 12883
8376 11.097744458053903 7.3182609510552119 27.187855988626673 133 98 67 1.6799498319745858 3 4702 9 4924 8 4910 1 9990
9486 7.472108815922585 2.1824965793798521 20.949878170018778 234 168 107 1.2579138074234495 4 5887 6 1428 1 12373
8377 12.102450812649396 7.3527400013966586 27.186633777119859 190 153 122 0.64479472296493912 9 4979 8 4913
8378 -5.6726195607568801 6.6451072226298979 27.738963599161131 62 47 28 0.79520248207951616 6 2902 8 4916 1 4209
8379 10.40663334224627 7.2834862750240008 27.188414123307837 164 131 100 0.15287978006171171 9 4914 8 4926 1 5017
8973 -6.2876110387974427 2.6809207056552289 16.743163048127442 75 67 48 0.49715480192319378 9 14381 8 12925
8380 4.792598797932869 7.0552536925121805 27.26793335322688 113 91 70 1.5829594817456198 2 4232 8 4931 1 9780
8381 6.929994143961749 7.1361669425002923 27.106659062482905 130 102 78 0.70365685074290629 3 4974 9 4774 8 4944
9484 10.085298274523632 1.6621289266327297 22.597212647915256 219 162 117 1.3560734952787037 4 5739 9 14141 1 12294
8383 -4.2697040255695153 6.8038245348305235 27.832608643703018 48 33 14 1.1787087929741722 3 5821 6 2881 8 4965 1 4300
9041 9.8036186733574748 -5.2388045478966561 36.021202091106666 206 173 130 1.651423044565913 4 7574 8 13773 6 10093 1 14965
8384 10.768633649858652 7.3141681951614421 27.008987382904177 159 124 94 0.60812490905250793 9 4978 8 4975 1 5099
9558 -0.67505383885578241 1.5998875760685325 21.189231111846087 63 54 42 1.7218660851489413 3 15402 4 8026 1 14110
8385 5.4910158876756494 7.1299520037407831 27.146135996855804 132 108 84 0.71708541953990279 9 4753 8 4985 1 4788
8386 12.755024906057416 7.4382422400668924 26.976039173484462 181 142 109 1.1843800266470368 3 4688 9 5101 8 5005 1 10090 8 13077
8387 15.293764014703592 7.530821529124891 26.920712699183493 180 138 96 0.53034984222973358 3 4572 9 5186 8 5022
9045 -3.649539366186016 -2.058871199302041 28.484968220962671 150 135 132 1.2940516713577344 4 7697 6 8650 9 15931 8 13912 1 13771
8388 -5.7304447876125622 6.7691918595207854 27.73781349206967 108 93 74 1.0112846460359277 3 6009 6 2957 9 4418 8 5027
8390 4.1613705719551621 7.1236125113666056 26.944276513210177 71 50 32 1.9176336185089702 2 4344 8 5063 1 4808 3 5317
9556 11.399948681966373 1.4016830781147847 23.48029291998953 248 191 140 1.0862737728003808 4 7944 1 14055 6 6253 9 16220
8391 6.0625581960532218 7.1992987907790935 26.977760791189521 75 50 28 1.4326230410906788 2 4282 8 5071 1 4893
9049 1.9181036206968893 -0.86864996331174904 28.107376978086499 132 111 106 1.3987190079560268 2 7447 3 14168 4 7771 6 8697 8 13948 9 16012
8392 7.7833623233534297 7.2676259285755247 26.899028112059547 145 115 87 0.61946188568194382 4 2526 9 11358 8 5075
9566 2.6364054828398533 2.6533950952582908 18.914189636532608 158 95 52 1.5059992026221245 4 8255 6 9161 9 16499 1 14359
8393 10.863680714992935 7.4310436452376489 26.949084170582559 109 74 47 1.3193040752926906 3 4841 9 5076 8 5077 1 10053
8394 13.59486481833784 7.5043357516067122 26.754081870763503 170 130 94 1.1052215114192834 9 5189 8 5087 1 5425
8395 6.9180353311951892 7.2309021132537161 26.810108006819387 178 151 124 0.75929344848250568 3 5117 9 4921 8 5104
9053 -1.2339558898337266 0.14124717284817231 25.01951299815552 118 104 79 1.283861119219369 4 7852 8 14024 1 13918
8396 14.843262191158795 7.5784715739246682 26.822150793840578 202 160 118 0.96350877864528484 3 4652 9 5237 8 5108
8397 15.214908633198466 7.6129595143578577 26.885596915095451 178 136 94 1.0250803454070285 3 4641 9 5251 8 5109
8398 -6.5792359689909707 6.8128791276376326 27.583530222074163 99 82 62 0.93354699546273556 3 6222 6 3026 8 5147 1 4317
9564 9.227645012739714 2.4417337994812867 22.340431100327521 187 134 94 1.1163715244746126 8 14222 9 16411 1 14225 3 14369
8399 6.8990320974206973 7.2833152258229097 26.813333450026445 93 65 41 0.62647040473012539 9 4967 8 5155 1 5000
9121 9.3600493495510531 0.69245777942504694 24.536622086414454 238 197 169 1.10895870015677 4 9284 6 8788 9 16122 8 15127 2 12793 7 14201 1 15168
8400 9.1137848948306672 7.3764962409636894 26.764297267659302 172 139 108 0.5351569857813725 9 5072 8 5157 1 5172
8401 5.194017025057752 7.2259546307395635 26.880273554315696 87 62 41 1.6420871978912335 2 4357 3 5289 8 5165 1 4907
8402 -5.2986236103346487 6.8209182323720077 27.171447793854341 65 50 31 0.34991875046031007 9 4534 8 5182 6 3011
8403 -5.3063452172365189 6.8295983114799617 27.210338323612536 65 50 31 0.50252430415148164 9 4535 8 5183 6 3012 1 4410
9125 16.811532224931842 4.7048179258806524 34.804781183845982 240 201 162 1.3191643490545326 4 9389 9 17587 8 15210
8404 12.019603108634316 7.5425925055372938 26.626556886759111 150 112 76 1.1345833963058063 2 4160 8 5222 1 5449
8405 10.951173562153855 7.54236753955455 26.752080244098313 128 93 63 2.0585743999698685 9 5181 8 5234 1 5377
8406 9.6617573086907935 7.4714183975428679 26.644681027735611 116 83 50 0.65129215850347155 9 11451 8 5251 1 10095
9636 -8.2929625844863928 -8.6940560355631025 67.523289936853772 198 192 166 3.2263477160689131 3 8491 7 1006 1 823
8407 -3.8121586551042248 6.9303606813138687 26.997510137937251 60 43 27 1.4703139772754696 9 4630 8 5260 1 4521
9129 1.0030540578694087 3.0825938322721549 17.399971760868471 70 48 35 1.2598507077811389 6 10474 9 17617 8 15305
8408 -5.8128148057072018 6.8607725712077432 27.082874001067704 67 50 32 0.47642857466243066 6 3066 9 4571 8 5268
9646 -2.8132567822840571 -2.5081245829142147 29.876371376217964 102 92 82 1.9507716621948892 6 10975 1 15708
8409 5.6435049576554288 7.3414016449593786 26.620510964211686 84 59 39 0.79013057715913815 9 5050 8 5290 1 5065
8410 13.362945485180195 7.633457624474083 26.346990849631787 205 166 125 1.2972837166684752 9 5392 8 5303 1 5653
8411 -5.7970906752025275 6.9341707922507441 27.128372383812035 98 81 63 0.68837414837294031 3 6333 9 4607 8 5309 1 4479
9133 5.7502516475159933 6.889427847106961 27.692450566946217 94 73 46 1.5327054990835032 4 9597 6 9433 8 15384
8412 8.4321745449855587 7.4584758313432813 26.50758615792147 172 140 111 0.5808797423466866 9 5163 8 5315 1 5264
8413 7.0374833840321385 7.4273260583764804 26.536853176062557 69 39 14 0.51590373430677394 9 5134 8 5330 1 5221
8414 6.9748100059688749 7.4471228613988938 26.488561167017671 153 123 95 0.80972738025725699 9 5154 8 5351 1 5244
9644 -3.2471289869127751 -2.4746512216181253 29.376693223289191 105 97 86 2.6247350951772646 9 15909 1 13753
8415 10.939598741047424 7.6084331949107851 26.372125345343289 198 164 127 1.4720690700835066 9 5338 8 5356 1 5539 3 5081
9073 6.8661128996458842 3.2513434295711678 21.015864997086105 109 63 30 1.4170995272218927 4 8289 9 16558 8 14399 6 9166 1 14416
9590 1.0775735376820246 3.1591930077169637 17.480179269559997 146 99 57 1.3163136548482468 4 9462 6 10483 9 17624 1 15306
8417 -1.6305037433846854 7.1465876383543874 26.519143324428402 47 31 16 0.91340118115931512 9 4892 8 5445 1 4789 2 9194
8418 12.569653463533822 7.7245489108452663 26.18225512956392 171 132 91 0.94899885857511446 9 5484 8 5454 1 5738
8419 12.569653463533822 7.7245489108452663 26.18225512956392 171 132 91 0.94899885857511446 9 5485 8 5455 1 5739
9077 5.3515959043028145 3.5270084829908273 19.965616179346853 117 66 37 1.1137245182016573 6 9246 9 16633 8 14467 4 9443 1 14491
8420 10.021889080737219 7.6464224399379619 26.20366647256337 181 147 112 0.65372435022245468 9 5395 8 5478 1 5584
8421 -1.7370167401322234 7.1833227381023939 26.524302131260729 53 37 22 1.1708733013561401 3 6201 9 4917 8 5489 1 4813
8422 11.825155880409678 7.7260046138450971 26.077575989338815 167 129 92 1.0395970950618261 9 5504 8 5503 1 5747
9588 3.8810390760378914 3.1879475592239017 18.71937302750678 87 45 22 1.4283825085323112 6 10437 1 15291 9 17613
8423 -4.3510217053464082 7.0930648104666822 26.611120325302227 88 73 54 0.64442175843926675 3 6409 9 4826 8 5505 1 4684
9081 4.3276450278195391 3.7601746092042352 19.372110050646548 95 51 22 1.5829610456322341 6 9320 8 14532 1 14537
8424 6.1935425641081139 7.5111610741332919 26.210402768973811 85 59 36 0.48312619386303129 9 5256 8 5507 1 5335
9598 -11.948521275200612 -15.885763374632186 86.0704509733024 59 60 55 0.7474542043987088 4 9853 9 18004 1 15617
8425 -3.9779154962698917 7.1060651124676815 26.550512761831058 87 71 55 1.0712086062743822 6 3123 9 11324 8 5515 1 4705
8426 5.4058565142867154 7.5030874683572923 26.194481262523404 67 42 22 0.38527428188341228 9 5254 8 5538 1 5299
8427 5.4058565142867154 7.5030874683572923 26.194481262523404 67 42 22 0.38527428188341228 9 5255 8 5539 1 5300
9085 2.7612959270181623 3.560394558660704 18.279530417010523 127 82 53 1.0393899363071972 4 9487 6 10492 8 14556
8428 8.0968319066053791 7.6108946961391011 26.014387637902715 126 93 63 0.55263937418402487 3 5509 9 5394 8 5558 1 10199
8429 6.9838528905392492 7.5708129047896655 26.04639517061937 145 116 86 0.66184993968459072 9 5352 8 5572 1 5457
8430 8.8550040266994099 7.6816970587984335 26.039393112971535 114 80 52 1.6917720994874099 9 5439 8 5574 1 5642
9596 -16.656862942999755 -14.988323030997639 71.303139124919213 55 52 45 1.5114452742731119 9 17989 1 15603 5 14360
8431 2.8314276928608058 7.4407466953872987 26.147739652236361 73 52 31 0.86845363583369617 9 5197 8 5583 1 5212
9025 -0.82586187427015079 8.5485195891323578 23.168051011707888 105 87 65 1.2730071377117138 4 6860 6 9701 8 13551
8432 6.7574766701506626 7.6022818008181652 26.010187307349298 93 63 37 1.2193782912698652 2 4583 3 5663 8 5594 1 5486
9542 -5.6729851416808588 -2.3542243711319339 28.670645990071058 160 147 114 0.73805341832053095 3 14134 6 8638 1 13760 9 15912
8433 12.236330381746427 7.8244772884622904 25.921112889108418 178 139 100 1.3217790900539168 9 5600 8 5597 1 5889
8434 13.436536568942628 7.8313368840816731 25.823929312028596 172 130 88 1.1099469080659439 9 5645 8 5598 1 10434
9029 -15.649472137676909 -19.902038122082114 72.005861984806813 94 108 92 1.2340057028783609 6 10865 8 13631 9 17205 5 11357 8 11589
8436 12.018757503765389 7.812238531553958 25.848880158892477 172 132 96 1.137326153449262 9 5597 8 5615 1 5887
8437 5.184348648605865 7.5562574541726262 25.951874679285602 84 60 36 0.85883397284940255 9 5359 8 5629 1 5407
8438 10.44043282624509 7.7756027713517417 25.835713402903256 198 160 124 1.3864835672444655 9 5565 8 5630 1 5805
9540 5.0092222055304676 -3.0422890387730366 33.814513788481868 27 8 10 1.9131911221154301 4 5153 9 13586 1 13723
8439 -3.2273762348497348 7.2348424672240235 26.283347718936955 63 46 28 0.62336680759842289 9 5012 8 5637 1 4877
9033 25.727145245063518 -10.655436465164593 47.620327061966584 147 97 70 1.0967036668470063 4 7461 6 5557 9 15687 8 13655
8440 4.6420496576151589 7.5272068874197053 25.894017774305826 119 97 73 1.2670344251683869 3 5877 9 5347 8 5646 1 5383
9550 5.8672025658278057 0.28236523314960726 25.423756662150073 145 119 106 1.2208372786083346 3 12444 6 6084 8 12180 1 13934 9 13871
8441 -5.2040282104561228 7.2702406803695983 26.579856752674889 56 41 22 1.2626214451420894 3 6670 9 4984 8 5672 6 3264 4 2732 1 4802
8442 -3.7785526353239756 7.2394982444958673 26.190700010261118 83 70 53 0.38504461673362389 9 5042 8 5681 6 3206
8443 9.0342118337729467 7.7344067017902054 25.728611602151272 182 147 115 0.71091270432407927 3 10682 9 5542 8 5697 1 10325
9037 19.135607304566612 -9.0453929033678833 52.031265350950918 96 54 29 1.5035242144970731 2 10476 4 7525 6 8466 8 13707 9 13431 1 11461
8444 10.649210794348727 7.8376753583008796 25.772637791198925 198 160 123 1.5353874263758021 9 5618 8 5706 1 5907
8445 10.940050155498344 7.8629781300426309 25.809484896525568 158 120 83 1.0160124409767433 9 5643 8 5707 1 5918
9548 6.1319824913649343 0.23096865257784799 25.489338125751811 132 107 100 0.92183573034664601 4 5405 6 6066 8 13998 1 13927 9 13860
8447 3.5946390465445597 7.5573992096200762 25.816543045370913 63 41 20 0.81864474317074898 3 6049 9 5374 8 5730
8880 10.350751211305669 8.8821499238255246 22.815118369564811 156 117 78 1.3223550845497782 4 3592 9 12348 8 11378
8449 12.50182700187861 7.896499602424301 25.550617315227914 205 166 125 0.9341353118382264 9 5756 8 5736 1 6099
8450 3.4073139577345257 7.5974972986036393 25.758640382497916 113 91 67 1.6551792720935741 2 4838 8 5777 1 5455
8451 -2.6984935055573889 7.4145502467098661 26.063606482013505 98 81 63 1.0877777193566802 6 3243 8 5793 1 5061
9399 -5.6587563804042889 7.0266626691270684 27.523658983609053 67 49 31 1.3501892504569808 6 7266 1 9685 4 2578
8452 8.8123612355237952 7.8535999276934456 25.574516102293405 175 139 105 0.1970354840505785 9 5677 8 5809 1 5884
8884 -0.89302640297409641 8.5904636820243017 23.177915911284199 76 55 36 1.0905395743493418 4 3615 9 12129 8 11422 1 6832
8453 4.350262525832691 7.6610690793257099 25.542471966599503 63 38 18 1.3716100071577826 2 4841 8 5841 1 5592
9393 5.8820182168559363 6.5294489831757243 28.796987594428398 131 105 80 0.9566542665689175 4 2192 6 2273 9 11068 1 9528
8454 5.2801438110724765 7.7081021964342753 25.490922971151448 122 98 74 0.28060661646758478 9 5547 8 5856 1 5689
8455 -4.6207748645083049 7.4141039302365659 26.15227782589983 84 67 47 1.3844502692937375 3 6867 4 2808 6 3347 9 5166 8 5859 1 5002
8456 4.8879673203575624 7.7064512429187575 25.521298710389061 78 54 28 1.1378368596355726 9 5543 8 5863 1 5659
8888 3.0599607632201851 8.7044600979014657 22.790442889775932 100 72 50 1.353769347171369 4 3646 6 4028 9 12233 8 11441
8457 10.769782430294676 7.9834531537736142 25.46759422960719 168 130 91 2.1434775695302419 9 5828 8 5869 1 6147
8459 12.676086188397326 8.0154350846123954 25.216641121534465 178 139 98 1.8066633590203587 9 5942 8 5910 1 6268
9407 -3.6392950954552825 7.5694985176463438 25.704334716650099 75 57 35 1.2159803371614382 4 2901 6 7405 9 11511 1 10086
8460 12.652364337270772 8.0509121946904276 25.309323338285378 211 172 129 0.72743171499920456 3 5548 9 5935 8 5915
8892 -1.3709358607019404 8.5752963673425899 23.09061704382545 114 93 72 1.0599224181508673 6 4277 8 11448 1 10949
8461 -4.4952567308610076 7.4247152893855031 25.872114511024719 93 76 57 0.60853900018966078 3 6936 9 5242 8 5932 1 5081
9401 8.7990889167964017 7.0659465264194576 27.387498364218061 159 126 95 0.48366252224161688 4 2401 9 11263 1 9824
8462 -4.1893921732428083 7.4552891404830914 25.851667223611749 93 76 58 1.0057510770775064 3 11257 9 5267 8 5955
8464 12.193741356866727 8.0687290460047585 25.217612435488629 175 136 93 0.97277279503890279 9 5961 8 5973 1 6289
8832 14.242218143231083 8.4790431250249707 24.204022883897405 212 169 126 0.46954223223158537 4 3137 6 3039 8 10924
8465 13.748383350538134 8.1036530124458963 25.135896028334233 187 145 103 0.75303591784317681 3 5515 9 11748 8 5980
8466 9.0274668581832032 7.9480924098258248 25.234644050443926 178 142 106 0.84900928697123679 9 11668 8 5985 1 10490
8467 5.1897113855237178 7.819136305318346 25.374825119441692 66 40 17 0.93244143953515557 9 5674 8 5991 1 5791
9351 4.0877916467404543 -5.1828899411976144 34.489968174641866 21 25 11 1.5133922216209044 4 381 6 346 9 9401 1 7711
8468 11.134586019643582 8.0454381191308606 25.22989481316495 200 162 125 1.0578591677360223 9 5925 8 5996 1 6243
8836 -1.3748940987527762 8.0447472295804641 24.511028271339928 67 50 30 1.6098618376168001 4 3169 9 11750 8 10996 6 7507 1 6080
8469 11.542765102544385 8.0628760505723367 25.169890565838493 210 172 133 1.1071736228382314 9 5959 8 6003 1 6280
9345 -3.717305990316953 -11.354647510769077 74.727161806694724 0 0 0 0.54849318513083611 4 5033 8 8055
8470 2.5802115914699297 7.7121683971493233 25.333086323546052 67 46 27 0.62919033155608828 9 5579 8 6020 1 5657
8471 11.618524897770502 8.0795265192871888 25.087071055738321 210 171 132 1.2030539557273621 9 6004 8 6041 1 6315
8472 -2.1422580306981041 7.602890835812536 25.596417968039368 57 40 22 1.0399822746859033 6 3364 9 5448 8 6062 1 5357
8840 -3.2596903460406015 8.0061712586654945 24.367187145978182 72 54 34 1.2897229856273338 4 3203 6 3827 8 11050
8473 -2.1368404610179148 7.5808577722819654 25.520823990804079 57 40 22 0.67362706858044152 6 3363 9 5447 8 6063
8474 4.6889940831373993 7.8301595793991794 25.222613229382649 79 53 30 0.35843983668251295 9 5727 8 6066 1 10380
8475 10.432104924528538 8.0784528414875414 25.18399897865147 153 113 77 0.33638392675177614 4 2938 8 6073
9359 -1.1942775581659704 -1.555486630268077 27.010470755899892 246 232 206 1.8246536371017066 2 948 3 12286 8 12015 1 8115
8476 -5.0266469926396349 7.4003016608278918 25.470781364945896 94 77 57 1.0846984572192786 9 5313 8 6075 6 3473
8844 11.051314429864926 8.5810184819690196 23.694407967087191 164 122 84 0.87798056458188567 3 6614 4 3289 6 3302 8 11092
8477 3.5876674421804409 7.8024834739655891 25.211134145302946 88 64 40 1.4587159093739157 2 5033 8 6094 1 5775
9353 5.2575045701470442 -4.503639624442104 33.072505722500772 108 90 70 1.3832740196765865 4 416 9 9434 1 7784
8478 4.3132538513447969 7.8187577538393773 25.163748389141915 81 56 36 0.8987897557280542 2 5005 3 6363 8 6096
8479 -3.0300470608256411 7.585937236145484 25.54003162968149 67 50 32 0.76197783743651537 6 3421 9 5459 8 6100 1 5331
8480 7.2476334012093808 7.9810817761265804 24.977458027612933 125 92 61 0.8304131145025162 3 10953 9 5907 8 6146 1 10502
8784 4.5896853940712914 7.4833571009226372 26.143860302209042 75 53 31 0.70415219075058255 3 10779 9 5245 8 10480 1 5268
8481 2.4991594289593113 7.862879136402313 25.238044810636858 68 48 28 0.74035253361115672 6 3252 8 6165 1 5790
8482 -3.8872944215878316 7.6379503136856117 25.424100826391783 87 70 50 0.9414852133670808 4 2952 6 3513 9 11551 8 6193 1 5392
8483 10.143031089330318 8.1746363041329388 24.879489725492959 197 159 122 1.0626098199125167 9 6121 8 6208 1 10672
9303 -3.0690431621519791 8.2297955467022561 23.801189862699456 83 61 38 0.4891552030215891 8 11212 9 6402 1 6341
8484 12.032336751573261 8.2109501143871935 24.761679764645109 213 174 135 0.78502572296778173 9 6204 8 6209 1 6523
8788 -2.4914222518125895 7.3214281614428529 26.187078900630191 73 56 38 0.78116682356908607 6 3175 9 11421 8 10551 1 4978
8485 -1.7898957908356186 7.7249485056675615 25.224832307324675 49 32 16 0.75406544527364816 3 7021 9 5613 8 6232 1 5581
9297 -1.2061420761306294 7.8654464343239496 24.851430873717973 70 52 30 1.1697000909657802 2 5419 8 6448 1 5799 3 7178
8486 8.1005281683411496 8.1110354305434491 24.906972235796115 123 88 56 0.63283736426193726 9 6043 8 6235 1 6273
